0.0 83.0 0.0
0.0 77.48203715185521 15.412135439274131
0.0 63.74768774327878 26.405156833191196
0.0 57.37140324887562 38.33434607835255
0.0 52.32590180780452 52.32590180780452
0.0 42.223337709489776 63.19169053499344
0.0 33.67614204812791 81.30139886099323
0.0 20.289393489677348 102.00166916193596
0.0 7.531577814756223e-15 123.0
0.0 -36.87207086104823 185.36841799621055
0.0 -68.11765096098597 164.45055678700905
0.0 -70.00184936046989 104.76517115012068
0.0 -77.07463914933368 77.07463914933369
0.0 -79.82108278104435 53.33474236988181
0.0 -84.99691699103838 35.20687577758827
0.0 -85.32831939508105 16.97285801540315
0.0 -91.0 1.1144285872240914e-14
0.0 -92.19381635790366 -18.338490269516065
0.0 -96.08347138117384 -39.79907696596933
0.0 -96.45047502709525 -64.44614703027386
0.0 -77.07463914933369 -77.07463914933368
0.0 -40.55662701043096 -60.6972816980858
0.0 -22.578322509540282 -54.50889241816592
0.0 -9.754516100806434 -49.03926402016152
0.0 -8.450062914116736e-15 -46.0
0.0 7.803612880645132 -39.23141121612922
0.0 14.924653862238511 -36.03130176794018
0.0 26.111800951921285 -39.079071778219635
0.0 38.8908729652601 -38.89087296526012
0.0 50.71964635045526 -33.889784214195736
0.0 70.2148444708578 -29.083940859746807
0.0 101.02088388153273 -20.09430316766126
100.0 82.0 0.0
100.0 73.55889603024228 14.631774151209619
100.0 66.51932634081264 27.553207130286463
100.0 57.37140324887562 38.33434607835255
100.0 50.204581464244875 50.204581464244875
100.0 41.11219724345057 61.528751310388344
100.0 32.52809175103263 78.52976026345937
100.0 18.338490269516065 92.19381635790366
100.0 7.715274834628325e-15 126.0
100.0 -38.43279343717725 193.21470023943638
100.0 -61.994716043144535 149.66848426682844
100.0 -64.44614703027386 96.45047502709524
100.0 -72.83199846221439 72.8319984622144
100.0 -74.00079549492654 49.44575073874459
100.0 -80.37751932848195 33.29345861576282
100.0 -79.44360771266166 15.802316083306382
100.0 -85.0 1.0409497792752502e-14
100.0 -89.25146051669397 -17.75321930346768
100.0 -91.4640737186174 -37.88565980414388
100.0 -94.78753580249015 -63.33500656423466
100.0 -80.61017305526643 -80.61017305526642
100.0 -47.77904003968579 -71.5063866580189
100.0 -26.022473400826087 -62.8238082107675
100.0 -10.729967710887076 -53.943190422177665
100.0 -9.001153973733046e-15 -49.0
100.0 9.16924513475803 -46.09690817895183
100.0 17.22075445642905 -41.5745789630079
100.0 27.778511650980093 -41.57348061512727
100.0 41.71930009000629 -41.719300090006314
100.0 56.539933636573075 -37.778775845332945
100.0 75.75812166592551 -31.380041453937345
100.0 103.96323972274241 -20.679574133709643
200.0 83.0 0.0
200.0 79.44360771266166 15.802316083306389
200.0 65.59544680830136 27.170523697921375
200.0 59.865812085783254 40.00105677741136
200.0 53.74011537017761 53.74011537017761
200.0 45.55675910760739 68.1805082088087
200.0 32.52809175103263 78.52976026345937
200.0 19.509032201612833 98.07852804032305
200.0 7.960204194457796e-15 130.0
200.0 -39.01806440322564 196.1570560806461
200.0 -59.31593201658891 143.20132753924943
200.0 -61.11272563215625 91.46165735327996
200.0 -70.0035713374682 70.00357133746822
200.0 -74.83226510722908 50.001320971764194
200.0 -75.75812166592551 31.38004145393737
200.0 -75.52046659104874 15.021954795241868
200.0 -80.0 9.797174393178826e-15
200.0 -85.32831939508105 -16.97285801540317
200.0 -86.84467605606096 -35.97224264231843
200.0 -88.96724851637234 -59.446014933097445
200.0 -79.90306627407989 -79.90306627407986
200.0 -47.77904003968579 -71.5063866580189
200.0 -26.405156833191175 -63.747687743278796
200.0 -10.729967710887076 -53.943190422177665
200.0 -9.184850993605149e-15 -50.0
200.0 8.974154812741903 -45.116122898548596
200.0 17.60343788879414 -42.49845849551919
200.0 27.22294141796049 -40.742011002824725
200.0 40.3050865276332 -40.305086527633215
200.0 55.70846402427053 -37.22320561231334
200.0 74.83424213341424 -30.997358021572254
200.0 104.94402500314564 -20.874664455725775
